X Y Z
0.000000 0.000000 0.000000
0.000000 -369181.750000 -0.000000
0.000000 0.000000 -0.000000
-0.282000 0.236000 0.200000
-0.000000 0.000000 0.000000
0.000000 0.000000 0.000000
368.266083 -0.290000 0.238000
3.000000 -0.000000 0.000000
0.000000 0.000000 0.000000
-0.000000 368.266083 0.000000
0.000000 0.000000 -0.000000
-2661073689772032.000000 89469.109375 -1686011620479795425524169310208.000000
0.000000 -0.000000 368.266083
0.000000 0.000000 0.000000
0.000000 6982557270259681313918220763136.000000 -71.872864
0.000000 0.000000 -0.000000
0.000000 0.000000 0.000000
-0.000000 0.000000 0.000000
0.000000 0.000000 0.000000
368.266083 -0.466000 0.349000
7.000000 -0.000000 0.000000
0.000000 0.000000 0.000000
-0.000000 368.266083 -1.361000
0.907000 36.000000 -0.000000
-0.000000 -5638382799017801774377467904.000000 -0.000000
0.000000 -0.000000 368.266083
0.000000 0.000000 0.000000
0.000000 406699268448380955522309816320.000000 0.991195
0.000000 0.000000 -0.000000
-1.428000 0.976000 0.935000
-0.000000 0.000000 0.000012
-0.000000 0.000000 0.000000
368.266083 -1.462000 0.996000
9.000000 -0.000000 0.000000
4604288009362701918666752.000000 -0.000000 0.000000
-0.000000 368.266083 -1.501000
0.966000 55.000000 -0.000000
0.000000 16140831258701633421312.000000 -0.000000
0.000000 -0.000000 368.266083
0.997000 1.127000 45.000000
0.000000 5192.464844 89471.546875
0.000000 0.000000 -0.000000
-1.578000 0.970000 0.998000
-0.000000 0.000000 0.000000
0.058898 0.000000 0.000000
368.266083 -1.607000 0.993000
42.000000 -0.000000 0.000000
-1253.993896 -0.241453 0.000000
-0.000000 368.266083 -1.659000
1.033000 46.000000 -0.000000
-0.000000 3274105384226258944.000000 0.003483
0.000000 -0.000000 368.266083
0.991000 1.202000 41.000000
0.000000 -495054388105292321347640850644992.000000 -0.000000
0.000000 0.000000 -0.000000
-1.753000 0.964000 1.075000
-0.000000 0.000000 -322213853528015018045472768.000000
-0.000000 0.000000 0.000000
368.266083 -1.772000 0.990000
39.000000 -0.000000 0.000000
-1253.996582 -0.000000 0.000000
-0.000000 368.266083 -1.843000
1.115000 44.000000 -0.000000
-28880967031209897306795410456576.000000 -8753133387776.000000 166318273768734550283500030004490665984.000000
0.000000 -0.000000 368.266083
0.987000 1.295000 36.000000
0.000000 -142310813930559317150587546752778240.000000 953464817672467251200.000000
0.000000 0.000000 -0.000000
-1.956000 0.956000 1.167000
-0.000000 0.000000 0.000000
-0.000000 0.000000 0.000000
368.266083 -1.960000 0.982000
35.000000 -0.000000 0.000000
-0.241943 0.000000 0.000000
-0.000000 368.266083 -2.070000
1.220000 38.000000 -0.000000
-0.000000 -370176.125000 -97950702235306442229314224128.000000
0.000000 -0.000000 368.266083
0.978000 1.400000 33.000000
0.000000 -21537.859375 -0.000050
0.000000 0.000000 -0.000000
-2.186000 0.941000 1.273000
-0.000000 0.000000 0.000000
190556154051428352.000000 0.000000 0.000000
368.266083 -2.179000 0.973000
30.000000 -0.000000 0.000000
-0.000000 0.000000 0.000000
-0.000000 368.266083 -2.330000
1.342000 30.000000 -0.000000
11066507224154112.000000 119634718824670288106919317995520.000000 -97950673901107545011442941952.000000
0.000000 -0.000000 368.266083
0.969000 1.529000 31.000000
0.000000 0.000000 0.000000
0.000000 0.000000 -0.000000
-2.473000 0.927000 1.410000
-0.000000 0.000000 55992937507748577280.000000
0.000000 0.000000 0.000000
368.266083 -2.439000 0.962000
15.000000 -0.000000 0.000000
0.000000 -0.000000 0.000000
-0.000000 368.266083 -2.659000
1.502000 26.000000 -0.000000
-495054388105292321347640850644992.000000 4604318850012950151823360.000000 7490953728.000000
0.000000 -0.000000 368.266083
0.960000 1.694000 5.000000
0.000000 1525879.000000 0.000000
0.000000 0.000000 -0.000000
-2.875000 0.922000 1.609000
-0.000000 0.000000 -28880967031209897306795410456576.000000
300.495636 0.000000 0.000000
368.266083 -2.654000 0.912000
35.000000 -0.000000 0.000000
2136750161920.000000 -0.000000 0.000000
-0.000000 368.266083 -3.104000
1.723000 1.000000 -0.000000
89223.437500 -0.000000 406657333834013073072812195840.000000
0.000000 -0.000000 368.266083
0.863000 1.730000 34.000000
0.000000 -66191205163315127910400.000000 0.000000
0.000000 0.000000 -0.000000
-3.160000 0.848000 1.741000
-0.000000 0.000000 0.000000
-142299672470205748728113454634762240.000000 0.000000 0.000000
368.266083 -2.735000 0.806000
35.000000 -0.000000 0.000000
0.059021 406656427139648362100931166208.000000 0.000000
-0.000000 368.266083 -3.202000
1.752000 27.000000 -0.000000
-0.000000 0.000000 -0.000000
0.000000 -0.000000 368.266083
0.750000 1.746000 36.000000
0.000000 0.989315 -28957982859474266872999242104832.000000
0.000000 0.000000 -0.000000
-3.252000 0.708000 1.769000
-0.000000 0.000000 0.000000
0.000000 0.000000 0.000000
368.266083 -2.810000 0.693000
37.000000 -0.000000 0.000000
-66334667329445015060480.000000 951145604601859801088.000000 0.000000
-0.000000 368.266083 -3.296000
1.783000 27.000000 -0.000000
0.000000 -0.000000 0.000206
0.000000 -0.000000 368.266083
0.635000 1.770000 34.000000
0.000000 0.000000 2136751603712.000000
0.000000 0.000000 -0.000000
-3.342000 0.562000 1.799000
-0.000000 0.000000 -369181.750000
0.000000 0.000000 0.000000
368.266083 -2.884000 0.577000
35.000000 -0.000000 0.000000
-71.875328 23558991494588156173361348608.000000 0.000000
-0.000000 368.266083 -3.383000
1.814000 5.000000 -0.000000
17.158066 9917332635223128986751701870125776896.000000 -0.000000
0.000000 -0.000000 368.266083
0.000000 0.000000 0.000000
0.000000 0.000000 0.000000
0.000000 0.000000 -0.000000
0.000000 0.000000 0.000000
-0.000000 0.000000 0.000000
0.000000 0.000000 0.000000
368.266083 0.000000 0.000000
0.000000 -0.000000 0.000000
953453629042143002624.000000 -0.000000 0.000000
-0.000000 368.266083 0.000000
0.000000 0.000000 -0.000000
0.000000 0.000000 0.000000
0.000000 -0.000000 368.266083
0.000000 0.000000 0.000000
0.000000 0.000206 -40664578238938901588874687127482269696.000000
0.000000 0.000000 -0.000000
0.000000 0.000000 0.000000
-0.000000 0.000000 0.000000
0.000000 0.000000 0.000000
368.266083 0.000000 0.000000
0.000000 -0.000000 0.000000
0.000000 0.000000 0.000000
-0.000000 368.266083 -0.788000
0.418000 9.000000 -0.000000
-97960996994239098055880081408.000000 -66333658523128484069376.000000 2132361084928.000000
0.000000 -0.000000 368.266083
0.065000 0.460000 12.000000
0.000000 0.000000 0.000000
0.000000 0.000000 -0.000000
-0.793000 0.018000 0.420000
-0.000000 0.000000 6982557270259681313918220763136.000000
2132351516672.000000 0.000000 0.000000
368.266083 -0.768000 0.049000
13.000000 -0.000000 0.000000
0.000000 -45948071233716224.000000 0.000000
-0.000000 368.266083 -0.791000
0.419000 11.000000 -0.000000
-97960996994239098055880081408.000000 -71.873589 -30767556608.000000
0.000000 -0.000000 368.266083
0.032000 0.465000 12.000000
0.000000 -30771363840.000000 -0.000000
0.000000 0.000000 -0.000000
-0.809000 -0.019000 0.428000
-0.000000 0.000000 0.000000
-6348161.500000 0.000000 0.000000
368.266083 -0.766000 0.014000
12.000000 -0.000000 0.000000
0.000000 126829518848.000000 0.000000
-0.000000 368.266083 -0.642000
0.340000 0.000000 -0.000000
1346883853453562272567787520.000000 -152554134568960.000000 -6348369.500000
0.000000 -0.000000 368.266083
-0.002000 0.462000 12.000000
0.000000 -152023454449664.000000 301.494232
0.000000 0.000000 -0.000000
-0.589000 -0.042000 0.313000
-0.000000 0.000000 -0.000000
0.000000 0.000000 0.000000
368.266083 -0.765000 -0.019000
12.000000 -0.000000 0.000000
0.000000 5184.000000 0.000000
-0.000000 368.266083 -0.564000
0.300000 1.000000 -0.000000
0.000206 -98259261661297144847577120768.000000 -98254605407945035377396416512.000000
0.000000 -0.000000 368.266083
-0.035000 0.448000 6.000000
0.000000 0.000000 -71.873543
0.000000 0.000000 -0.000000
-0.552000 -0.066000 0.295000
-0.000000 0.000000 0.000000
444050208.000000 0.000000 0.000000
368.266083 -0.588000 -0.041000
0.000000 -0.000000 0.000000
-28957424335745604914320527851520.000000 -0.000000 0.000000
-0.000000 368.266083 0.000000
0.000000 0.000000 -0.000000
-4.102016 0.000000 -0.000000
0.000000 -0.000000 368.266083
-0.051000 0.335000 0.000000
0.000000 -2401588147493784937494132659945734144.000000 0.000000
0.000000 0.000000 -0.000000
-0.537000 -0.090000 0.288000
-0.000000 0.000000 0.000000
0.000001 0.000000 0.000000
368.266083 -0.544000 -0.062000
1.000000 -0.000000 0.000000
-66333451357545625026560.000000 0.000000 0.000000
-0.000000 368.266083 0.000000
0.000000 0.000000 -0.000000
1346883853453562272567787520.000000 0.000000 -0.000000
0.000000 -0.000000 368.266083
-0.073000 0.320000 1.000000
0.000000 0.000000 0.000000
0.000000 0.000000 -0.000000
-0.543000 -0.117000 0.294000
-0.000000 0.000000 0.000000
0.003490 0.000000 0.000000
368.266083 -0.523000 -0.084000
1.000000 -0.000000 0.000000
0.000000 0.000000 0.000000
-0.000000 368.266083 0.000000
0.000000 0.000000 -0.000000
-3915589393822680875008.000000 2136713330688.000000 -0.000000
0.000000 -0.000000 368.266083
0.000000 0.000000 0.000000
0.000000 55992937507748577280.000000 -6348674.500000
0.000000 0.000000 -0.000000
-0.528000 -0.140000 0.290000
-0.000000 0.000000 -18833895114956530830540800.000000
0.000000 0.000000 0.000000
368.266083 -0.527000 -0.109000
3.000000 -0.000000 0.000000
3274047934743707648.000000 166646057790339164929221441532523970560.000000 0.000000
-0.000000 368.266083 -0.539000
0.298000 1.000000 -0.000000
0.000000 0.000000 0.000000
0.000000 -0.000000 368.266083
0.000000 0.000000 0.000000
0.000000 11066507224154112.000000 -2669546586505216.000000
0.000000 0.000000 -0.000000
-0.541000 -0.171000 0.301000
-0.000000 0.000000 0.000000
0.000000 0.000000 0.000000
368.266083 0.000000 0.000000
0.000000 -0.000000 0.000000
0.000000 0.000000 0.000000
-0.000000 368.266083 -0.561000
0.315000 1.000000 -0.000000
0.000000 0.000000 0.000000
0.000000 -0.000000 368.266083
0.000000 0.000000 0.000000
0.000000 -152023454449664.000000 -28957281682498890388077912522752.000000
0.000000 0.000000 -0.000000
-0.587000 -0.217000 0.333000
-0.000000 0.000000 0.000000
0.000000 0.000000 0.000000
368.266083 0.000000 0.000000
0.000000 -0.000000 0.000000
0.000000 0.000000 0.000000
-0.000000 368.266083 -3.758000
2.152000 1.000000 -0.000000
0.000000 0.000000 0.000000
0.000000 -0.000000 368.266083
0.000000 0.000000 0.000000
0.000000 0.000000 0.000000
0.000000 0.000000 -0.000000
-3.536000 -1.499000 2.045000
-0.000000 0.000000 166329307399558936792210657309190258688.000000
-0.000000 0.000000 0.000000
368.266083 0.000000 0.000000
0.000000 -0.000000 0.000000
0.000000 0.000000 0.000000
-0.000000 368.266083 -3.347000
1.958000 50.000000 -0.000000
0.000012 -0.000000 -496282501995515873916607963070464.000000
0.000000 -0.000000 368.266083
0.000000 0.000000 0.000000
0.000000 -0.000000 -0.000000
0.000000 0.000000 -0.000000
-3.140000 -1.507000 1.858000
-0.000000 0.000000 0.989315
-231447795781173510144.000000 0.000000 0.000000
368.266083 -3.343000 -1.347000
2.000000 -0.000000 0.000000
-323378839203246071068229632.000000 2045921374748745754153368783159296.000000 0.000000
-0.000000 368.266083 -2.951000
1.767000 48.000000 -0.000000
0.000000 2045999674456230554455756152766464.000000 0.000000
0.000000 -0.000000 368.266083
-1.435000 2.136000 12.000000
0.000000 2132576043008.000000 407904076364422522366389649408.000000
0.000000 0.000000 -0.000000
-2.765000 -1.489000 1.678000
-0.000000 0.000000 0.003483
-0.241942 0.000000 0.000000
368.266083 -3.231000 -1.474000
6.000000 -0.000000 0.000000
0.000000 26181456.000000 0.000000
-0.000000 368.266083 -2.608000
1.604000 49.000000 -0.000000
300.529053 -0.000000 2136737316864.000000
0.000000 -0.000000 368.266083
-1.474000 1.983000 42.000000
0.000000 2132576043008.000000 444074336.000000
0.000000 0.000000 -0.000000
-2.469000 -1.481000 1.541000
-0.000000 0.000000 34604147821664549107297418626465792.000000
34682752062399013613232413418192896.000000 0.000000 0.000000
368.266083 -2.872000 -1.468000
52.000000 -0.000000 0.000000
-21600.142578 -13528737414318653440.000000 0.000000
-0.000000 368.266083 -2.328000
1.475000 67.000000 -0.000000
6982557270259681313918220763136.000000 -21600.062500 -0.000000
0.000000 -0.000000 368.266083
-1.463000 1.799000 48.000000
0.000000 0.000000 0.059021
0.000000 0.000000 -0.000000
-2.207000 -1.466000 1.420000
-0.000000 0.000000 -0.000000
-0.000000 0.000000 0.000000
368.266083 -2.559000 -1.457000
43.000000 -0.000000 0.000000
0.000000 -791502824146993152.000000 0.000000
-0.000000 368.266083 -2.096000
1.372000 73.000000 -0.000000
-0.000000 0.000000 -0.241942
0.000000 -0.000000 368.266083
-1.455000 1.647000 54.000000
0.000000 34604147821664549107297418626465792.000000 -2406636090640218775499567719197442048.000000
0.000000 0.000000 -0.000000
-1.988000 -1.458000 1.324000
-0.000000 0.000000 0.000000
-0.000000 0.000000 0.000000
368.266083 -2.303000 -1.452000
56.000000 -0.000000 0.000000
34682999650406870689287393243037696.000000 -13528735215295397888.000000 0.000000
-0.000000 368.266083 -1.887000
1.280000 78.000000 -0.000000
0.000000 -2406629910843542662881235422769315840.000000 0.000000
0.000000 -0.000000 368.266083
-1.447000 1.521000 63.000000
0.000000 6982557270259681313918220763136.000000 636618843095040.000000
0.000000 0.000000 -0.000000
-1.801000 -1.453000 1.245000
-0.000000 0.000000 0.000000
-107871688.000000 0.000000 0.000000
368.266083 -2.079000 -1.445000
66.000000 -0.000000 0.000000
7001798533604667751862844260352.000000 -28957719313645590883839156158464.000000 0.000000
-0.000000 368.266083 -1.717000
1.212000 82.000000 -0.000000
166329307399558936792210657309190258688.000000 0.000000 -18870493455198770580946944.000000
0.000000 -0.000000 368.266083
-1.440000 1.415000 69.000000
0.000000 4595136983150261222506496.000000 127104262144.000000
0.000000 0.000000 -0.000000
-1.631000 -1.443000 1.175000
-0.000000 0.000000 -0.241469
0.000000 0.000000 0.000000
368.266083 -1.880000 -1.436000
66.000000 -0.000000 0.000000
-0.000000 -0.000000 0.000000
-0.000000 368.266083 -1.555000
1.145000 55.000000 -0.000000
0.989315 -0.000000 407898485082506804706456633344.000000
0.000000 -0.000000 368.266083
-1.436000 1.326000 73.000000
0.000000 -495054388105292321347640850644992.000000 -0.000000
0.000000 0.000000 -0.000000
-1.488000 -1.443000 1.120000
-0.000001 0.000000 -0.000000
0.000012 0.000000 0.000000
368.266083 -1.713000 -1.435000
80.000000 -0.000001 0.000000
1351576262424056213469659136.000000 0.000000 0.000000
-0.000000 368.266083 -1.458000
1.125000 11.000000 -0.000001
-1686218195679222075284397228032.000000 -98260905044833183484111486976.000000 -3924524254008407228416.000000
0.000000 -0.000000 368.266083
-1.433000 1.250000 77.000000
0.000000 -0.000000 1351574639110577727029116928.000000
0.000000 0.000000 -0.000000
-1.420000 -1.509000 1.123000
-0.000002 0.000000 -0.000000
0.000000 0.000000 0.000000
368.266083 -1.559000 -1.431000
56.000000 -0.000002 0.000000
0.000000 26181486.000000 0.000000
-0.000000 368.266083 -1.351000
1.096000 66.000000 -0.000002
0.000000 0.003490 -0.000000
0.000000 -0.000000 368.266083
-1.427000 1.181000 7.000000
0.000000 2041064781232124296662405156438016.000000 0.000000
0.000000 0.000000 -0.000000
-1.292000 -1.504000 1.077000
-0.000003 0.000000 89223.437500
-6348767.500000 0.000000 0.000000
368.266083 -1.464000 -1.471000
10.000000 -0.000004 0.000000
-0.000000 2045976772565503774920670518968320.000000 0.000000
-0.000000 368.266083 -1.238000
1.061000 50.000000 -0.000005
0.000012 191120014537916416.000000 -0.000000
0.000000 -0.000000 368.266083
-1.497000 1.181000 52.000000
0.000000 -28880967031209897306795410456576.000000 127103639552.000000
0.000000 0.000000 -0.000000
-1.183000 -1.511000 1.045000
-0.000008 0.000000 4595136983150261222506496.000000
-0.000000 0.000000 0.000000
368.266083 -1.362000 -1.497000
61.000000 -0.000010 0.000000
-28957726567200508571614204395520.000000 -0.000000 0.000000
-0.000000 368.266083 -1.128000
1.027000 47.000000 -0.000013
16105079433059752738816.000000 -0.000000 -2406619452726090779988673074967871488.000000
0.000000 -0.000000 368.266083
-1.496000 1.128000 29.000000
0.000000 -0.000003 -142625141761814346626947733182742528.000000
0.000000 0.000000 -0.000000
-1.071000 -1.503000 1.007000
-0.000019 0.000000 0.000000
1351569621596189678031077376.000000 0.000000 0.000000
368.266083 -1.241000 -1.495000
35.000000 -0.000024 0.000000
-0.000050 -0.014328 0.000000
-0.000000 368.266083 -1.018000
0.990000 5.000000 -0.000028
406699268448380955522309816320.000000 -0.000000 0.991207
0.000000 -0.000000 368.266083
-1.504000 1.089000 18.000000
0.000000 0.000206 0.000000
0.000000 0.000000 -0.000000
-0.959000 -1.483000 0.966000
-0.000044 0.000000 -71.632263
-323385221776695574573088768.000000 0.000000 0.000000
368.266083 -1.137000 -1.502000
33.000000 -0.000053 0.000000
-0.000000 0.000000 0.000000
-0.000000 368.266083 -0.917000
0.959000 62.000000 -0.000064
-142310813930559317150587546752778240.000000 -142624616875237689625711175954071552.000000 0.000000
0.000000 -0.000000 368.266083
-1.501000 1.046000 47.000000
0.000000 271848370377564979462144.000000 0.000000
0.000000 0.000000 -0.000000
-0.872000 -1.492000 0.948000
-0.000101 0.000000 7491514368.000000
-0.000000 0.000000 0.000000
368.266083 -1.027000 -1.493000
76.000000 -0.000120 0.000000
-13528689035807031296.000000 0.000000 0.000000
-0.000000 368.266083 -0.834000
0.943000 29.000000 -0.000154
55992937507748577280.000000 -0.000000 0.000000
0.000000 -0.000000 368.266083
-1.493000 1.006000 57.000000
0.000000 126843551744.000000 191119447602233344.000000
0.000000 0.000000 -0.000000
-0.804000 -1.528000 0.949000
-0.000228 0.000000 -0.000000
0.000207 0.000000 0.000000
368.266083 -0.919000 -1.475000
7.000000 -0.000286 0.000000
0.003490 119633896755112950159080517795840.000000 0.000000
-0.000000 368.266083 -0.760000
0.938000 22.000000 -0.000359
-0.000000 -0.000000 -0.000000
0.000000 -0.000000 368.266083
-1.478000 0.964000 15.000000
0.000000 0.000000 9917200165735405136779245464640815104.000000
0.000000 0.000000 -0.000000
-0.722000 -1.536000 0.936000
-0.000526 0.000000 0.000012
0.000207 0.000000 0.000000
368.266083 -0.836000 -1.489000
59.000000 -0.000671 0.000000
36489408806912.000000 77295390220333136650174464.000000 0.000000
-0.000000 368.266083 -0.654000
0.891000 66.000000 -0.000820
0.003483 0.000000 -0.000000
0.000000 -0.000000 368.266083
-1.491000 0.945000 50.000000
0.000000 0.000000 0.000000
0.000000 0.000000 -0.000000
-0.613000 -1.471000 0.880000
-0.001251 0.000000 119326819925524277431671751442432.000000
-0.000000 0.000000 0.000000
368.266083 -0.769000 -1.526000
19.000000 -0.001549 0.000000
-521295921152.000000 119633877412299836325013722497024.000000 0.000000
-0.000000 368.266083 -0.570000
0.867000 58.000000 -0.001839
443053824.000000 301.493225 -30836381696.000000
0.000000 -0.000000 368.266083
-1.533000 0.946000 24.000000
0.000000 -495054388105292321347640850644992.000000 953453136460933758976.000000
0.000000 0.000000 -0.000000
-0.504000 -1.380000 0.814000
-0.002914 0.000000 -0.000000
-1253.991577 0.000000 0.000000
368.266083 -0.664000 -1.481000
68.000000 -0.003494 0.000000
119632678157886778612872413970432.000000 -1691016875604454893964746555392.000000 0.000000
-0.000000 368.266083 -0.468000
0.805000 67.000000 -0.000013
-0.000000 0.000000 -0.000000
0.000000 -0.000000 368.266083
-1.467000 0.883000 66.000000
0.000000 26118000.000000 -40665559400503478238431445575763230720.000000
0.000000 0.000000 -0.000000
-0.433000 -1.372000 0.798000
-0.000020 0.000000 -45954878756880384.000000
-0.000000 0.000000 0.000000
368.266083 -0.576000 -1.461000
64.000000 -0.000024 0.000000
-21599.570312 -30836381696.000000 0.000000
-0.000000 368.266083 -0.400000
0.793000 92.000000 -0.000029
-495054388105292321347640850644992.000000 0.000000 -521299034112.000000
0.000000 -0.000000 368.266083
-1.378000 0.812000 10.000000
0.000000 -45954878756880384.000000 -0.000000
0.000000 0.000000 -0.000000
-0.366000 -1.363000 0.785000
-0.000046 0.000000 -0.000000
0.000000 0.000000 0.000000
368.266083 -0.471000 -1.372000
57.000000 -0.000055 0.000000
34682321259265342300896748522962944.000000 3274097412766957568.000000 0.000000
-0.000000 368.266083 -0.334000
0.782000 75.000000 -0.000067
-0.000000 0.003490 -2406616758968565295001194894473560064.000000
0.000000 -0.000000 368.266083
-1.374000 0.794000 87.000000
0.000000 -230889279058635390976.000000 -0.000000
0.000000 0.000000 -0.000000
-0.302000 -1.364000 0.779000
-0.000104 0.000000 -0.014298
7001739900702416442347871010816.000000 0.000000 0.000000
368.266083 -0.401000 -1.370000
89.000000 -0.000123 0.000000
-13528505417365192704.000000 0.059021 0.000000
-0.000000 368.266083 -0.271000
0.776000 18.000000 -0.000160
-30771363840.000000 -0.000000 -0.000000
0.000000 -0.000000 368.266083
-1.368000 0.777000 88.000000
0.000000 -0.000000 953445184792841682944.000000
0.000000 0.000000 -0.000000
-0.236000 -1.344000 0.763000
-0.000234 0.000000 -1686218195679222075284397228032.000000
56132505115731951616.000000 0.000000 0.000000
368.266083 -0.336000 -1.375000
16.000000 -0.000298 0.000000
-0.000000 -0.000000 0.000000
-0.000000 368.266083 -0.197000
0.728000 14.000000 -0.000370
-0.000000 -28956969779637429813750838329344.000000 -152555845844992.000000
0.000000 -0.000000 368.266083
-1.360000 0.761000 91.000000
0.000000 0.000000 9917075935976582770297898787726688256.000000
0.000000 0.000000 -0.000000
-0.168000 -1.281000 0.724000
-0.000546 0.000000 0.003483
-28957683045871002444963914973184.000000 0.000000 0.000000
368.266083 -0.268000 -1.363000
16.000000 -0.000694 0.000000
-521290121216.000000 17.218592 0.000000
-0.000000 368.266083 -0.142000
0.734000 15.000000 -0.000843
634482096865280.000000 2136686592000.000000 -0.000000
0.000000 -0.000000 368.266083
-1.363000 0.753000 16.000000
0.000000 -66191205163315127910400.000000 9917053752091078776283372595420594176.000000
0.000000 0.000000 -0.000000
-0.114000 -1.312000 0.739000
-0.001297 0.000000 -0.000050
-0.000000 0.000000 0.000000
368.266083 -0.195000 -1.302000
14.000000 -0.001595 0.000000
7507605504.000000 77295311821670823384580096.000000 0.000000
-0.000000 368.266083 -0.085000
0.736000 15.000000 -0.001884
0.000000 -0.000000 0.000000
0.000000 -0.000000 368.266083
-1.295000 0.708000 10.000000
0.000000 0.000000 0.000000
0.000000 0.000000 -0.000000
-0.056000 -1.298000 0.731000
-0.003006 0.000000 -0.000000
0.000000 0.000000 0.000000
368.266083 -0.136000 -1.314000
14.000000 -0.003586 0.000000
0.000000 -323384336332980036514611200.000000 0.000000
-0.000000 368.266083 -0.028000
0.723000 13.000000 -0.004456
0.000012 -0.000000 0.000000
0.000000 -0.000000 368.266083
-1.324000 0.717000 14.000000
0.000000 119326819925524277431671751442432.000000 -0.000000
0.000000 0.000000 -0.000000
0.000000 -1.258000 0.709000
-0.006805 0.000000 -0.000000
0.000000 0.000000 0.000000
368.266083 -0.076000 -1.322000
14.000000 -0.008179 0.000000
-8752862855168.000000 -1691012795479813694591281922048.000000 0.000000
-0.000000 368.266083 0.027000
0.716000 13.000000 -0.010559
-152023454449664.000000 0.000000 -0.014328
0.000000 -0.000000 368.266083
-1.310000 0.705000 14.000000
0.000000 -2401588147493784937494132659945734144.000000 -8752829300736.000000
0.000000 0.000000 -0.000000
0.055000 -1.295000 0.732000
-0.015259 0.000000 119326819925524277431671751442432.000000
4604279938912169670737920.000000 0.000000 0.000000
368.266083 -0.015000 -1.298000
13.000000 -0.019532 0.000000
7001375409567802631651697098752.000000 -0.000000 0.000000
-0.000000 368.266083 0.083000
0.733000 11.000000 -0.024292
77148969189248067084222464.000000 119310765390639795156231653425152.000000 -8427283626105442290967300100063232.000000
0.000000 -0.000000 368.266083
-1.277000 0.685000 12.000000
0.000000 0.000000 0.000000
0.000000 0.000000 -0.000000
0.111000 -1.289000 0.732000
-0.036133 0.000000 -0.000000
26181452.000000 0.000000 0.000000
368.266083 0.042000 -1.263000
12.000000 -0.045656 0.000000
55984330530726346752.000000 0.000000 0.000000
-0.000000 368.266083 0.139000
0.732000 11.000000 -0.055176
0.000000 -71.620781 -370173.156250
0.000000 -0.000000 368.266083
-1.298000 0.694000 11.000000
0.000000 -0.241469 -0.000000
0.000000 0.000000 -0.000000
0.166000 -1.282000 0.732000
-0.085449 0.000000 0.000000
5207.955566 0.000000 0.000000
368.266083 0.103000 -1.297000
11.000000 -0.104496 0.000000
0.000000 -496281612226112637549535379324928.000000 0.000000
-0.000000 368.266083 0.193000
0.731000 11.000000 -0.123047
-3915589393822680875008.000000 -0.014297 -0.000000
0.000000 -0.000000 368.266083
-1.300000 0.695000 11.000000
0.000000 -2661073689772032.000000 -0.000000
0.000000 0.000000 -0.000000
0.222000 -1.276000 0.735000
-0.197266 0.000000 -0.000000
-0.000000 0.000000 0.000000
368.266083 0.162000 -1.295000
10.000000 -0.234383 0.000000
-0.000000 0.000000 0.000000
-0.000000 368.266083 0.250000
0.738000 11.000000 -0.001305
17.158066 -8406801289185446031628956640215040.000000 -0.000000
0.000000 -0.000000 368.266083
-1.288000 0.690000 10.000000
0.000000 -97960996994239098055880081408.000000 -0.000000
0.000000 0.000000 -0.000000
0.279000 -1.276000 0.742000
-0.001892 0.000000 -28880967031209897306795410456576.000000
0.000000 0.000000 0.000000
368.266083 0.220000 -1.275000
9.000000 -0.002426 0.000000
-369138.218750 0.000000 0.000000
-0.000000 368.266083 0.306000
0.742000 11.000000 -0.003021
-520259108864.000000 -0.000000 26181446.000000
0.000000 -0.000000 368.266083
-1.281000 0.689000 10.000000
0.000000 89223.437500 23558566481604697905292115968.000000
0.000000 0.000000 -0.000000
0.334000 -1.268000 0.746000
-0.004486 0.000000 0.000000
-1826607488.000000 0.000000 0.000000
368.266083 0.282000 -1.282000
10.000000 -0.005646 0.000000
584767301113444737174766782183899136.000000 -0.000850 0.000000
-0.000000 368.266083 0.361000
0.745000 11.000000 -0.006836
0.000000 -0.000000 0.000000
0.000000 -0.000000 368.266083
-1.278000 0.691000 10.000000
0.000000 -1686218195679222075284397228032.000000 -0.000000
0.000000 0.000000 -0.000000
0.389000 -1.255000 0.748000
-0.010559 0.000000 3265371413611020288.000000
-1826607232.000000 0.000000 0.000000
368.266083 0.341000 -1.272000
10.000000 -0.012940 0.000000
11065110286041088.000000 166651026980692059588475308609089044480.000000 0.000000
-0.000000 368.266083 0.416000
0.749000 11.000000 -0.015320
-0.000848 -6332260.500000 -8753093541888.000000
0.000000 -0.000000 368.266083
-1.270000 0.692000 10.000000
0.000000 -0.000000 443012640.000000
0.000000 0.000000 -0.000000
0.444000 -1.242000 0.752000
-0.024414 0.000000 -0.000000
636610857140224.000000 0.000000 0.000000
368.266083 0.404000 -1.268000
10.000000 -0.029176 0.000000
-0.000000 -0.000000 0.000000
-0.000000 368.266083 0.473000
0.756000 11.000000 -0.036377
-97960996994239098055880081408.000000 -0.000000 -46091115119509504.000000
0.000000 -0.000000 368.266083
-1.262000 0.696000 10.000000
0.000000 119326819925524277431671751442432.000000 443013728.000000
0.000000 0.000000 -0.000000
0.501000 -1.234000 0.759000
-0.055420 0.000000 -369181.750000
3274090265941377024.000000 0.000000 0.000000
368.266083 0.466000 -1.260000
10.000000 -0.066898 0.000000
4594780442174961555079168.000000 -2406614540580014895599742275242950656.000000 0.000000
-0.000000 368.266083 0.531000
0.764000 11.000000 -0.085938
0.000000 -2660750225047552.000000 -231447268015592177664.000000
0.000000 -0.000000 368.266083
-1.253000 0.699000 10.000000
0.000000 -0.014298 -0.000000
0.000000 0.000000 -0.000000
0.564000 -1.234000 0.774000
-0.123535 0.000000 300.529053
77295242646380546973761536.000000 0.000000 0.000000
368.266083 0.527000 -1.247000
10.000000 -0.160164 0.000000
0.000000 166650986415872852285134460714586472448.000000 0.000000
-0.000000 368.266083 0.595000
0.781000 50.000000 -0.197266
119326819925524277431671751442432.000000 -0.000000 -0.000000
0.000000 -0.000000 368.266083
-1.234000 0.700000 12.000000
0.000000 -4.102016 -0.241451
0.000000 0.000000 -0.000000
0.624000 -1.226000 0.785000
-0.296875 0.000000 -1120450046890347434344448.000000
9917224884922109587252574650353319936.000000 0.000000 0.000000
368.266083 0.592000 -1.239000
10.000000 -0.371109 0.000000
9896367595771254414795048644163665920.000000 1529843.875000 0.000000
-0.000000 368.266083 0.658000
0.795000 51.000000 -0.447266
11066507224154112.000000 0.000000 0.000000
0.000000 -0.000000 368.266083
-1.227000 0.708000 12.000000
0.000000 0.000000 -0.241452
0.000000 0.000000 -0.000000
0.687000 -1.218000 0.798000
-0.695312 0.000000 -0.000848
-142624894173806489550892753357897728.000000 0.000000 0.000000
368.266083 0.661000 -1.233000
10.000000 -0.847687 0.000000
0.000000 0.000000 0.000000
-0.000000 368.266083 0.719000
0.805000 40.000000 -1.000000
-0.014298 77143638080210765023805440.000000 2136733122560.000000
0.000000 -0.000000 368.266083
-1.230000 0.725000 50.000000
0.000000 0.000000 36351726583808.000000
0.000000 0.000000 -0.000000
0.749000 -1.207000 0.810000
-1.601562 0.000000 406699268448380955522309816320.000000
-791500693843214336.000000 0.000000 0.000000
368.266083 0.719000 -1.206000
12.000000 -1.906311 0.000000
0.000000 953459117804188860416.000000 0.000000
-0.000000 368.266083 0.790000
0.826000 2.000000 -2.406250
-0.000000 0.000000 272419697026293200584704.000000
0.000000 -0.000000 368.266083
-1.215000 0.733000 52.000000
0.000000 -1250.116211 0.000000
0.000000 0.000000 -0.000000
0.823000 -1.209000 0.834000
-3.625000 0.000000 36356596170752.000000
-0.000000 0.000000 0.000000
368.266083 0.801000 -1.213000
53.000000 -4.437744 0.000000
-21535.644531 -1691010830975356820818873024512.000000 0.000000
-0.000000 368.266083 0.863000
0.848000 71.000000 -5.656250
126843551744.000000 0.000000 -4.117139
0.000000 -0.000000 368.266083
-1.208000 0.748000 49.000000
0.000000 -40585405853051047293374809032087306240.000000 16103813921564461629440.000000
0.000000 0.000000 -0.000000
0.895000 -1.202000 0.854000
-8.125000 0.000000 -6332892.000000
-107871432.000000 0.000000 0.000000
368.266083 0.873000 -1.198000
48.000000 -10.562988 0.000000
-230869698955567955968.000000 0.000000 0.000000
-0.000000 368.266083 0.933000
0.865000 79.000000 -12.937500
0.000000 -0.000000 -2669586314952704.000000
0.000000 -0.000000 368.266083
-1.199000 0.765000 55.000000
0.000000 -2401588147493784937494132659945734144.000000 3265068223279661056.000000
0.000000 0.000000 -0.000000
0.969000 -1.192000 0.875000
-19.625000 0.000000 -8736462602240.000000
586076467270830441089162502419251200.000000 0.000000 0.000000
368.266083 0.958000 -1.195000
54.000000 -24.375977 0.000000
-2401415271643178812709503547046100992.000000 -0.000000 0.000000
-0.000000 368.266083 1.010000
0.889000 82.000000 -0.109863
-66191205163315127910400.000000 -495012607628966439763363005202432.000000 5207.949219
0.000000 -0.000000 368.266083
-1.190000 0.785000 44.000000
0.000000 -0.241469 -495012568943340212095229414604800.000000
0.000000 0.000000 -0.000000
1.048000 -1.185000 0.900000
-0.169922 0.000000 271848370377564979462144.000000
-0.000000 0.000000 0.000000
368.266083 1.058000 -1.202000
20.000000 -0.208015 0.000000
-0.000000 0.000000 0.000000
-0.000000 368.266083 1.087000
0.911000 81.000000 -0.245117
0.000000 -97950910019431688493703626752.000000 -0.000000
0.000000 -0.000000 368.266083
-1.189000 0.814000 85.000000
0.000000 7491514368.000000 34601506057620714105790783895371776.000000
0.000000 0.000000 -0.000000
1.124000 -1.167000 0.921000
-0.392578 0.000000 -1250.116211
-0.000050 0.000000 0.000000
368.266083 1.141000 -1.181000
84.000000 -0.466812 0.000000
0.000000 1351563718638086090974560256.000000 0.000000
-0.000000 368.266083 1.170000
0.937000 81.000000 -0.585938
-0.000000 -0.000000 444068512.000000
0.000000 -0.000000 368.266083
-1.172000 0.835000 87.000000
0.000000 -8736462602240.000000 -369148.750000
0.000000 0.000000 -0.000000
1.209000 -1.153000 0.948000
-0.886719 0.000000 -107617728.000000
0.000000 0.000000 0.000000
368.266083 1.237000 -1.168000
76.000000 -1.078186 0.000000
271829491287927042342912.000000 -521298182144.000000 0.000000
-0.000000 368.266083 1.252000
0.962000 83.000000 -1.375000
-30771363840.000000 -8407000597531770977853215399215104.000000 -0.000850
0.000000 -0.000000 368.266083
-1.157000 0.863000 79.000000
0.000000 5192.464844 -40582764069200171663302089902607302656.000000
0.000000 0.000000 -0.000000
1.297000 -1.137000 0.977000
-1.984375 0.000000 -0.000000
0.000000 0.000000 0.000000
368.266083 1.337000 -1.151000
82.000000 -2.562622 0.000000
-152006090031104.000000 586076189972261641163980925015425024.000000 0.000000
-0.000000 368.266083 1.347000
0.996000 83.000000 -3.171875
9897121214053090097174238434219261952.000000 -6332375.500000 -0.000000
0.000000 -0.000000 368.266083
-1.140000 0.893000 75.000000
0.000000 584820146297841751487941675998773248.000000 -30769258496.000000
0.000000 0.000000 -0.000000
1.392000 -1.120000 1.010000
-4.750000 0.000000 -71.632263
-71.874146 0.000000 0.000000
368.266083 1.447000 -1.134000
78.000000 -5.968994 0.000000
0.000000 -0.000000 0.000000
-0.000000 368.266083 1.444000
1.030000 76.000000 -7.187500
-107617728.000000 190557391002009600.000000 -0.000000
0.000000 -0.000000 368.266083
-1.124000 0.930000 80.000000
0.000000 -0.000003 0.000000
0.000000 0.000000 -0.000000
1.501000 -1.107000 1.052000
-11.187500 0.000000 0.000206
-0.241942 0.000000 0.000000
368.266083 1.566000 -1.114000
79.000000 -13.625488 0.000000
-0.000000 -3924512713534362091520.000000 0.000000
-0.000000 368.266083 1.551000
1.070000 74.000000 -16.000000
300.529053 -0.000000 444068224.000000
0.000000 -0.000000 368.266083
-1.102000 0.970000 78.000000
0.000000 55992937507748577280.000000 -520226504704.000000
0.000000 0.000000 -0.000000
1.610000 -1.086000 1.094000
-25.750000 0.000000 584820146297841751487941675998773248.000000
-3924512150584408670208.000000 0.000000 0.000000
368.266083 1.695000 -1.092000
71.000000 -30.500977 0.000000
0.000000 -0.000000 0.000000
-0.000000 368.266083 1.672000
1.119000 76.000000 -38.750000
-1120450046890347434344448.000000 0.000000 7001717535574753571708138946560.000000
0.000000 -0.000000 368.266083
-1.082000 1.019000 70.000000
0.000000 0.000000 -230872109085056040960.000000
0.000000 0.000000 -0.000000
1.735000 -1.067000 1.144000
-58.000000 0.000000 0.989315
0.000000 0.000000 0.000000
368.266083 1.845000 -1.072000
72.000000 -71.503906 0.000000
-45950734113439744.000000 17.218523 0.000000
-0.000000 368.266083 1.796000
1.168000 72.000000 -90.500000
0.000000 0.000000 191119430422364160.000000
0.000000 -0.000000 368.266083
-1.058000 1.075000 64.000000
0.000000 36356596170752.000000 0.000000
0.000000 0.000000 -0.000000
1.876000 -1.047000 1.203000
-131.000000 0.000000 126843551744.000000
119633335813532648971143454130176.000000 0.000000 0.000000
368.266083 2.010000 -1.046000
67.000000 -169.007812 0.000000
271831310742176500023296.000000 0.000000 0.000000
-0.000000 368.266083 1.944000
1.231000 68.000000 -208.000000
89223.437500 0.000000 1351560767159034297446301696.000000
0.000000 -0.000000 368.266083
-1.031000 1.140000 61.000000
0.000000 -1686218195679222075284397228032.000000 -152007650312192.000000
0.000000 0.000000 -0.000000
2.020000 -1.018000 1.263000
-314.000000 0.000000 -18833895114956530830540800.000000
0.000000 0.000000 0.000000
368.266083 2.187000 -1.013000
69.000000 -392.015625 0.000000
-0.000000 -0.000000 0.000000
-0.000000 368.266083 2.101000
1.298000 61.000000 -470.000000
11066507224154112.000000 0.000000 953457077110607708160.000000
0.000000 -0.000000 368.266083
-0.996000 1.213000 56.000000
0.000000 -8736462602240.000000 -142301623463707662487426695654539264.000000
0.000000 0.000000 -0.000000
2.187000 -0.988000 1.335000
-736.000000 0.000000 0.000000
0.000000 0.000000 0.000000
368.266083 2.398000 -0.980000
56.000000 -892.031250 0.000000
0.000000 -0.000000 0.000000
-0.000000 368.266083 2.267000
1.369000 62.000000 -1064.000000
0.000012 26116146.000000 0.000000
0.000000 -0.000000 368.266083
-0.956000 1.300000 54.000000
0.000000 -13493831218671648768.000000 0.000000
0.000000 0.000000 -0.000000
2.371000 -0.953000 1.417000
-1680.000000 0.000000 -97960996994239098055880081408.000000
-66333847674312833630208.000000 0.000000 0.000000
368.266083 2.625000 -0.933000
46.000000 -1992.062500 0.000000
-0.000000 -8753066278912.000000 0.000000
-0.000000 368.266083 2.472000
1.463000 51.000000 -42206150440647454097408.000000
1346883853453562272567787520.000000 1525764.875000 26181336.000000
0.000000 -0.000000 368.266083
-0.912000 1.406000 43.000000
0.000000 3265371413611020288.000000 0.000000
0.000000 0.000000 -0.000000
2.580000 -0.912000 1.512000
-65227687044636974514176.000000 0.000000 -0.000000
2045964238422606010445387165335552.000000 0.000000 0.000000
368.266083 2.900000 -0.883000
41.000000 -77333362843008867762176.000000 0.000000
-0.000050 0.000000 0.000000
-0.000000 368.266083 2.706000
1.571000 43.000000 -100350287760979960791040.000000
17.158066 -0.241456 0.000000
0.000000 -0.000000 368.266083
-0.853000 1.528000 43.000000
0.000000 0.000000 0.000000
0.000000 0.000000 -0.000000
2.828000 -0.865000 1.627000
-145803065158600295972864.000000 0.000000 4595136983150261222506496.000000
0.000001 0.000000 0.000000
368.266083 3.233000 -0.823000
46.000000 -186542699445387840716800.000000 0.000000
0.000000 -0.000000 0.000000
-0.000000 368.266083 2.962000
1.690000 43.000000 -232576549281330026774528.000000
-0.000003 0.000000 1351553093313499634272829440.000000
0.000000 -0.000000 368.266083
-0.790000 1.691000 49.000000
0.000000 -0.000000 -0.000000
0.000000 0.000000 -0.000000
3.107000 -0.808000 1.758000
-344732753249484100599808.000000 0.000000 0.000000
-6348707.500000 0.000000 0.000000
368.266083 3.691000 -0.760000
0.000000 -434476163168081069211648.000000 0.000000
406668214166389604735384551424.000000 -0.000000 0.000000
-0.000000 368.266083 3.318000
1.864000 2.000000 -526543862839965441327104.000000
-4.102016 0.000000 77294795312836759517134848.000000
0.000000 -0.000000 368.266083
-0.691000 1.844000 22.000000
0.000000 -0.000000 2132468170752.000000
0.000000 0.000000 -0.000000
3.323000 -0.715000 1.854000
-812247035053578976755712.000000 0.000000 0.000000
16140657870115979657216.000000 0.000000 0.000000
368.266083 3.782000 -0.599000
22.000000 -996456221373642559193088.000000 0.000000
0.000012 0.000000 0.000000
-0.000000 368.266083 3.316000
1.838000 25.000000 -1180591620717411303424000.000000
-30771363840.000000 119318560544324670285150158848000.000000 -0.000850
0.000000 -0.000000 368.266083
-0.507000 1.810000 25.000000
0.000000 -0.000000 0.003483
0.000000 0.000000 -0.000000
3.308000 -0.564000 1.821000
-1879501860182118795051008.000000 0.000000 -322213853528015018045472768.000000
1351540549527529511777730560.000000 0.000000 0.000000
368.266083 3.757000 -0.418000
26.000000 -2247920232822245959925760.000000 0.000000
-0.000000 -8427130740510590546503350058221568.000000 0.000000
-0.000000 368.266083 3.312000
1.813000 28.000000 -2795640957858829966508032.000000
0.000000 119318560544324670285150158848000.000000 272416094146591304187904.000000
0.000000 -0.000000 368.266083
-0.328000 1.783000 23.000000
0.000000 0.000000 0.000000
0.000000 0.000000 -0.000000
3.308000 -0.419000 1.801000
-4269019300514159273181184.000000 0.000000 -0.000000
-152551466991616.000000 0.000000 0.000000
368.266083 0.000000 0.000000
0.000000 -5138229881267353345327104.000000 0.000000
190556222770905088.000000 0.000000 0.000000
-0.000000 368.266083 3.298000
1.787000 28.000000 -6611313076017503299174400.000000
0.000000 0.000000 0.000000
0.000000 -0.000000 368.266083
-0.040000 0.457000 12.000000
0.000000 -1822546944.000000 -0.000000
0.000000 0.000000 -0.000000
3.298000 -0.275000 1.779000
-9520290829465204750811136.000000 0.000000 -0.000000
407874797692228730566064734208.000000 0.000000 0.000000
368.266083 0.952000 -0.017000
11.000000 -12316522083134393422970880.000000 0.000000
-152005100175360.000000 -0.000000 0.000000
-0.000000 368.266083 0.000000
0.000000 0.000000 -15262688472634693330665472.000000
23561794219095739307795677184.000000 -107608976.000000 -0.000003
0.000000 -0.000000 368.266083
0.004000 0.442000 11.000000
0.000000 -13493831218671648768.000000 0.000000
0.000000 0.000000 -0.000000
0.997000 -0.040000 0.533000
-22818474845226125672579072.000000 0.000000 584820146297841751487941675998773248.000000
-0.014327 0.000000 0.000000
368.266083 0.929000 0.025000
12.000000 -28562053080016331663736832.000000 0.000000
0.000000 4594666879406757780652032.000000 0.000000
-0.000000 368.266083 0.984000
0.524000 8.000000 -34454385859016931479126016.000000
7491514368.000000 0.000000 0.000000
0.000000 -0.000000 368.266083
0.046000 0.433000 13.000000
0.000000 0.000000 -0.000000
0.000000 0.000000 -0.000000
0.943000 0.002000 0.501000
-53494967517947340980748288.000000 0.000000 166329307399558936792210657309190258688.000000
-2401318613284911410217639423426691072.000000 0.000000 0.000000
368.266083 0.907000 0.067000
14.000000 -65284355442431410256740352.000000 0.000000
-0.000000 36350204051456.000000 0.000000
-0.000000 368.266083 0.908000
0.481000 11.000000 -77069021000432609887518720.000000
-97960996994239098055880081408.000000 55988077666353807360.000000 1346644931224319586455257088.000000
0.000000 -0.000000 368.266083
0.087000 0.424000 14.000000
0.000000 -0.000000 -0.000000
0.000000 0.000000 -0.000000
0.899000 0.041000 0.476000
-123310433600692175820029952.000000 0.000000 0.000000
271820177843897640157184.000000 0.000000 0.000000
368.266083 0.895000 0.107000
14.000000 -146889209449660314372014080.000000 0.000000
1525740.375000 -4.101324 0.000000
-0.000000 368.266083 0.895000
0.473000 15.000000 -184965650401038263730044928.000000
0.000000 -0.000000 55986234884865654784.000000
0.000000 -0.000000 368.266083
0.128000 0.422000 13.000000
0.000000 2132576043008.000000 -6332337.500000
0.000000 0.000000 -0.000000
0.887000 0.079000 0.468000
-279261864330979339357126656.000000 0.000000 -789321255638532096.000000
-151998573838336.000000 0.000000 0.000000
368.266083 0.887000 0.148000
13.000000 -340935970597256905847996416.000000 0.000000
3265067123768033280.000000 -520213037056.000000 0.000000
-0.000000 368.266083 0.884000
0.466000 15.000000 -435213295061266502894223360.000000
-0.000000 300.495209 -30768388096.000000
0.000000 -0.000000 368.266083
0.170000 0.422000 14.000000
0.000000 0.000000 -322173049330123972517298176.000000
0.000000 0.000000 -0.000000
0.883000 0.118000 0.464000
-623805722921148654148386816.000000 0.000000 2132576043008.000000
-30768429056.000000 0.000000 0.000000
368.266083 0.886000 0.191000
12.000000 -812435929712893762564259840.000000 0.000000
1346720489088045500778676224.000000 -13492334783346245632.000000 0.000000
-0.000000 368.266083 0.880000
0.463000 15.000000 -590295810358705651712000.000000
0.000000 0.000000 89212.398438
0.000000 -0.000000 368.266083
0.213000 0.425000 14.000000
0.000000 -789321255638532096.000000 -142299840830051091539830840915656704.000000
0.000000 0.000000 -0.000000
0.886000 0.158000 0.466000
-939750930091059397525504.000000 0.000000 89223.437500
443009280.000000 0.000000 0.000000
368.266083 0.889000 0.234000
14.000000 -1123960116411122979962880.000000 0.000000
-21535.697266 -1686017967340348402327336517632.000000 0.000000
-0.000000 368.266083 0.865000
0.456000 12.000000 -1397820478929414983254016.000000
89223.437500 0.000001 -30768558080.000000
0.000000 -0.000000 368.266083
0.255000 0.428000 13.000000
0.000000 0.000000 -0.000000
0.000000 0.000000 -0.000000
0.873000 0.195000 0.461000
-2134509650257079636590592.000000 0.000000 -0.000000
-30768599040.000000 0.000000 0.000000
368.266083 0.889000 0.279000
12.000000 -2569114940633676672663552.000000 0.000000
-2401414320905228641537452424518696960.000000 -0.000050 0.000000
-0.000000 368.266083 0.872000
0.462000 14.000000 -3305656538008751649587200.000000
0.000000 -0.000000 55987083707842297856.000000
0.000000 -0.000000 368.266083
0.309000 0.444000 7.000000
0.000000 5192.464844 -5619005748746966902654369792.000000
0.000000 0.000000 -0.000000
0.873000 0.237000 0.463000
-4760145414732602375405568.000000 0.000000 -0.000000
-3915217846853422809088.000000 0.000000 0.000000
368.266083 0.965000 0.353000
7.000000 -6158261041567196711485440.000000 0.000000
300.495819 166316519340303834414008358567254425600.000000 0.000000
-0.000000 368.266083 0.874000
0.464000 14.000000 -7631344236317346665332736.000000
-97960996994239098055880081408.000000 17.155958 -0.000000
0.000000 -0.000000 368.266083
0.378000 0.478000 9.000000
0.000000 -0.000000 -0.000000
0.000000 0.000000 -0.000000
0.889000 0.283000 0.474000
-11409237422613062836289536.000000 0.000000 -230889279058635390976.000000
0.000000 0.000000 0.000000
368.266083 0.963000 0.403000
9.000000 -14281026540008165831868416.000000 0.000000
0.000000 -28878488733279687316987262795776.000000 0.000000
-0.000000 368.266083 0.912000
0.488000 4.000000 -17227192929508465739563008.000000
0.000000 -0.000000 -0.000000
0.000000 -0.000000 368.266083
0.435000 0.491000 8.000000
0.000000 -66191205163315127910400.000000 -2660835319087104.000000
0.000000 0.000000 -0.000000
0.982000 0.361000 0.528000
-26747483758973670490374144.000000 0.000000 -369181.750000
-1249.962891 0.000000 0.000000
368.266083 0.989000 0.468000
0.000000 -32642177721215705128370176.000000 0.000000
5192.029785 16103942274153841688576.000000 0.000000
-0.000000 368.266083 0.969000
0.524000 9.000000 -38534510500216304943759360.000000
126843551744.000000 0.003483 -0.000000
0.000000 -0.000000 368.266083
1.460000 1.494000 3.000000
0.000000 -71.632263 -66187120398453102870528.000000
0.000000 0.000000 -0.000000
0.957000 0.402000 0.520000
-61655216800346087910014976.000000 0.000000 0.000000
0.000000 0.000000 0.000000
368.266083 2.846000 1.514000
35.000000 -73444604724830157186007040.000000 0.000000
0.000001 -789251299211214848.000000 0.000000
-0.000000 368.266083 0.957000
0.523000 9.000000 -92482825200519131865022464.000000
-0.000000 -0.000000 0.000000
0.000000 -0.000000 368.266083
1.546000 1.445000 7.000000
0.000000 -28880967031209897306795410456576.000000 634419618512896.000000
0.000000 0.000000 -0.000000
0.984000 0.465000 0.541000
-139630932165489669678563328.000000 0.000000 -495054388105292321347640850644992.000000
-2660800154042368.000000 0.000000 0.000000
368.266083 2.526000 1.496000
36.000000 -170467985298628452923998208.000000 0.000000
-3915324525869596147712.000000 0.000000 0.000000
-0.000000 368.266083 0.977000
0.541000 3.000000 -217606647530633251447111680.000000
406699268448380955522309816320.000000 -0.000000 -5619051201524364522989551616.000000
0.000000 -0.000000 368.266083
1.460000 1.260000 46.000000
0.000000 0.058902 0.000000
0.000000 0.000000 -0.000000
2.687000 1.419000 1.500000
-311902861460574327074193408.000000 0.000000 951227232345105891328.000000
-0.000000 0.000000 0.000000
368.266083 2.185000 1.432000
47.000000 -406217964856446881282129920.000000 0.000000
-0.000000 0.000000 0.000000
-0.000000 368.266083 2.647000
1.490000 33.000000 -498077437681227219978944512.000000
0.000000 -107610296.000000 6981940718091677853039120613376.000000
0.000000 -0.000000 368.266083
1.405000 1.128000 51.000000
0.000000 0.989315 -5619071271581916718981709824.000000
0.000000 0.000000 -0.000000
2.604000 1.528000 1.479000
-754369711439528605016653824.000000 0.000000 -40585405853051047293374809032087306240.000000
-142300682629277805598417772320129024.000000 0.000000 0.000000
368.266083 1.908000 1.382000
56.000000 -938164214952815196733702144.000000 0.000000
0.058899 951154189588649476096.000000 0.000000
-0.000000 368.266083 2.388000
1.369000 19.000000 -1126718937667810685664362496.000000
16105079433059752738816.000000 -0.000000 0.000000
0.000000 -0.000000 368.266083
1.361000 1.023000 64.000000
0.000000 0.000000 -97951495592875564329710125056.000000
0.000000 0.000000 -0.000000
2.251000 1.462000 1.304000
-1760195993358900078372192256.000000 0.000000 -0.000000
-0.000050 0.000000 0.000000
368.266083 1.681000 1.339000
56.000000 -2137456406942390295203938304.000000 0.000000
-71.624496 -0.000000 0.000000
-0.000000 368.266083 2.091000
1.225000 55.000000 -2553251331026096816979443712.000000
0.000000 951158552450788491264.000000 126835097600.000000
0.000000 -0.000000 368.266083
1.318000 0.933000 56.000000
0.000000 11066507224154112.000000 -0.000000
0.000000 0.000000 -0.000000
1.960000 1.402000 1.162000
-4042647940791319960217452544.000000 0.000000 -0.000000
89215.343750 0.000000 0.000000
